# .PCD v0.7 - Point Cloud Data file format
VERSION 0.7
FIELDS x y z
SIZE 4 4 4
TYPE F F F
COUNT 1 1 1
WIDTH 827
HEIGHT 1
VIEWPOINT 0 0 0 1 0 0 0
POINTS 827
DATA ascii
-22.182748794555664 -24.717172622680664 -3.4633729457855225
-21.59407615661621 -25.0585880279541 -3.4520034790039062
-21.830081939697266 -24.822572708129883 -3.4483883380889893
-21.758081436157227 -26.847856521606445 -3.609975814819336
-21.757699966430664 -25.768667221069336 -3.5206825733184814
-21.758188247680664 -27.40764045715332 -3.6568214893341064
-21.757884979248047 -26.301713943481445 -3.564612627029419
-21.757944107055664 -27.98139190673828 -3.7051680088043213
-21.757699966430664 -28.570159912109375 -3.7551491260528564
-21.56000518798828 -28.90996551513672 -3.7722866535186768
-25.005802154541016 -34.97884750366211 -4.500365257263184
-24.945402145385742 -34.16195297241211 -4.425987720489502
-25.068674087524414 -35.823936462402344 -4.577784538269043
-25.255451202392578 -37.68424987792969 -4.752377510070801
-25.134122848510742 -36.69868469238281 -4.658391952514648
-25.733800888061523 -41.02552032470703 -5.077750205993652
-24.856515884399414 -37.90890884399414 -4.750297546386719
-24.45815658569336 -38.133323669433594 -4.748684883117676
-25.31773567199707 -41.279945373535156 -5.078843593597412
-24.676427841186523 -41.15861892700195 -5.034470558166504
-22.340656280517578 -38.12812805175781 -4.6372809410095215
-20.28753089904785 -37.15345764160156 -4.445594787597656
-21.29658317565918 -37.20003128051758 -4.499279499053955
-20.10275650024414 -37.71305847167969 -4.489231586456299
-20.28066635131836 -36.26773452758789 -4.362722873687744
-19.699825286865234 -37.87101745605469 -4.485289096832275
-19.04509925842285 -37.53074264526367 -4.4231085777282715
-17.04482650756836 -36.26373291015625 -4.214068412780762
-18.62010955810547 -37.627540588378906 -4.413234233856201
-16.933029174804688 -36.988956451416016 -4.279256820678711
-16.536741256713867 -37.106056213378906 -4.274242877960205
-18.495237350463867 -38.34172058105469 -4.475959300994873
-16.696456909179688 -41.92939376831055 -4.752327919006348
-17.84783363342285 -46.16805648803711 -5.213099479675293
-17.156417846679688 -39.56336975097656 -4.538123607635498
-18.74726676940918 -49.98573303222656 -5.623614311218262
-17.687091827392578 -41.93921661376953 -4.790953636169434
-17.189708709716797 -41.93430709838867 -4.771337032318115
-18.28111457824707 -50.27696228027344 -5.636398792266846
-17.57401466369629 -53.292762756347656 -5.915266990661621
-17.661563873291016 -50.13962936401367 -5.601757526397705
-17.26508903503418 -54.184696197509766 -5.995629787445068
-17.551307678222656 -57.063289642333984 -6.295230388641357
-17.063926696777344 -50.045799255371094 -5.572742938995361
-17.082977294921875 -57.59861373901367 -6.335940837860107
-27.72187042236328 -105.00772094726562 -11.458383560180664
-30.323442459106445 -106.1515121459961 -11.64431381225586
-26.06715202331543 -102.92879486083984 -11.203752517700195
-29.068450927734375 -105.78034210205078 -11.572511672973633
-25.0533447265625 -103.28533935546875 -11.215909004211426
-24.152650833129883 -104.1392822265625 -11.282990455627441
-21.143354415893555 -105.55836486816406 -11.36597728729248
-23.013656616210938 -103.97499084472656 -11.240771293640137
-19.793081283569336 -104.25834655761719 -11.205031394958496
-22.511947631835938 -106.79447937011719 -11.521713256835938
-19.313480377197266 -107.63690185546875 -11.54770565032959
-18.282581329345703 -108.1456527709961 -11.582950592041016
-19.371063232421875 -140.24053955078125 -14.954307556152344
-21.45936393737793 -135.2078094482422 -14.458701133728027
-20.105342864990234 -135.47642517089844 -14.466130256652832
-12.86812973022461 -275.8236389160156 -29.17836570739746
-1.4424892663955688 -87.91490936279297 -9.291635513305664
-1.7594295740127563 -277.6895751953125 -29.34535789489746
-10.030004501342773 -274.3088684082031 -29.00638771057129
1.092397928237915 -292.40887451171875 -30.900299072265625
-2.310028314590454 -87.22555541992188 -9.22071647644043
4.037465572357178 -292.40887451171875 -30.902677536010742
12.197248458862305 -276.90887451171875 -29.288265228271484
6.983354568481445 -292.40887451171875 -30.9080867767334
14.857511520385742 -274.40887451171875 -29.03730583190918
9.930824279785156 -292.40887451171875 -30.916383743286133
17.630752563476562 -274.40887451171875 -29.05350112915039
7.217061519622803 -97.0431900024414 -10.281354904174805
23.40001106262207 -276.90887451171875 -29.3594913482666
4.408441543579102 -42.05439376831055 -4.466851234436035
3.989652633666992 -42.149139404296875 -4.472690582275391
4.55141019821167 -39.57058334350586 -4.207417964935303
5.106654167175293 -37.69336700439453 -4.017358779907227
4.93644905090332 -39.41707992553711 -4.195878028869629
5.533186912536621 -37.964012145996094 -4.051609516143799
6.354730129241943 -38.19367980957031 -4.0882391929626465
7.16530704498291 -40.53942108154297 -4.3464035987854
5.927552223205566 -37.985164642333984 -4.059691429138184
6.826136112213135 -36.47336959838867 -3.9172439575195312
7.25590181350708 -36.72059631347656 -3.951018810272217
9.566263198852539 -41.73986053466797 -4.518523693084717
7.693294048309326 -36.97226333618164 -3.9857821464538574
9.562005043029785 -39.872764587402344 -4.326056957244873
10.772845268249512 -43.007286071777344 -4.67704963684082
8.003645896911621 -36.61117172241211 -3.954883575439453
10.67530632019043 -40.86728286743164 -4.455171585083008
10.633577346801758 -36.19824981689453 -3.977614402770996
9.893997192382812 -36.374229431152344 -3.9754555225372314
11.144485473632812 -36.5714111328125 -4.030107498168945
10.624495506286621 -37.56211471557617 -4.116151809692383
11.493000984191895 -36.39653015136719 -4.022725582122803
12.082473754882812 -36.96269226074219 -4.097842693328857
13.047307968139648 -36.17554473876953 -4.050251483917236
12.219075202941895 -36.144020080566406 -4.0198211669921875
13.329679489135742 -35.82392120361328 -4.024945259094238
14.220101356506348 -37.07035827636719 -4.180050849914551
12.760696411132812 -36.52937316894531 -4.076027870178223
15.33892822265625 -35.62574768066406 -4.080151557922363
14.80298137664795 -37.45747756958008 -4.239448070526123
15.119359016418457 -37.15879440307617 -4.221792221069336
15.430304527282715 -36.85541534423828 -4.203885078430176
16.273487091064453 -34.85785675048828 -4.043952941894531
16.720157623291016 -34.89356231689453 -4.066465854644775
15.623418807983398 -35.303375244140625 -4.06015157699585
17.172090530395508 -34.929683685302734 -4.0896406173706055
21.00103759765625 -41.65330505371094 -4.90017032623291
21.529827117919922 -41.65330505371094 -4.924196243286133
22.06414222717285 -41.65330505371094 -4.948958396911621
16.013195037841797 -35.221343994140625 -4.068144798278809
22.60422134399414 -41.65330505371094 -4.9744553565979
24.260822296142578 -41.65330505371094 -5.055617809295654
23.150177001953125 -41.65330505371094 -5.000722885131836
24.82592010498047 -41.65329360961914 -5.084285259246826
23.702356338500977 -41.65330505371094 -5.027774333953857
25.39785385131836 -41.65329360961914 -5.113800048828125
25.764766693115234 -41.3133430480957 -5.102202892303467
20.908126831054688 -31.373708724975586 -3.947364091873169
46.88842010498047 -73.52517700195312 -9.135539054870605
20.942365646362305 -30.7495174407959 -3.8939571380615234
20.942363739013672 -30.093690872192383 -3.8362245559692383
47.62246322631836 -73.04325866699219 -9.13205337524414
20.942363739013672 -29.456512451171875 -3.7805068492889404
20.87677764892578 -27.561933517456055 -3.613144874572754
20.942363739013672 -28.837196350097656 -3.726703643798828
20.88192367553711 -26.999637603759766 -3.565612316131592
20.920507431030273 -28.205350875854492 -3.670898675918579
20.920507431030273 -26.49378776550293 -3.525275468826294
20.920507431030273 -25.952167510986328 -3.479872703552246
9.797782897949219 -11.42974853515625 -1.569924235343933
10.14908218383789 -12.33379077911377 -1.6668556928634644
9.529638290405273 -10.893010139465332 -1.508760929107666
9.681425094604492 -10.844182014465332 -1.514872670173645
20.920507431030273 -24.908397674560547 -3.3933627605438232
9.834540367126465 -10.794923782348633 -1.521189570426941
9.98598575592041 -10.317209243774414 -1.494024634361267
9.989091873168945 -10.745206832885742 -1.527712345123291
10.461698532104492 -10.593146324157715 -1.5485656261444092
10.145097732543945 -10.695012092590332 -1.5344454050064087
20.429140090942383 -20.273406982421875 -2.9924392700195312
10.975947380065918 -10.675070762634277 -1.5912954807281494
20.218534469604492 -19.271991729736328 -2.901859998703003
20.2236328125 -18.89189338684082 -2.873992443084717
21.4078311920166 -19.598201751708984 -3.0128681659698486
-23.50237464904785 46.52883529663086 -4.520108222961426
-24.083019256591797 46.50969696044922 -4.54292631149292
-24.67955207824707 46.50969696044922 -4.568355083465576
-25.282472610473633 46.50969696044922 -4.594549179077148
-25.89204216003418 46.50969696044922 -4.621529579162598
-26.50844955444336 46.50969696044922 -4.649302005767822
-27.13201332092285 46.50969696044922 -4.677892684936523
-27.762882232666016 46.50969696044922 -4.707334995269775
-28.40142822265625 46.50969696044922 -4.737627983093262
-28.886369705200195 46.25112533569336 -4.742299556732178
-121.50531768798828 190.25955200195312 -19.63929557800293
-123.7510986328125 189.54470825195312 -19.700037002563477
-10.388251304626465 13.988459587097168 -1.5197747945785522
-14.799805641174316 19.51557159423828 -2.137180805206299
-14.953506469726562 19.311607360839844 -2.1320595741271973
-15.106377601623535 19.108720779418945 -2.1271913051605225
-15.258438110351562 18.90690040588379 -2.1225717067718506
-15.409707069396973 18.706083297729492 -2.1182022094726562
-14.402803421020508 17.12962532043457 -1.9568188190460205
-15.01875114440918 17.501630783081055 -2.0173277854919434
-15.852470397949219 18.101444244384766 -2.1056430339813232
-23.29720687866211 26.068431854248047 -3.06083345413208
-23.244911193847656 25.489038467407227 -3.021427869796753
-22.505956649780273 24.185453414916992 -2.8948724269866943
-22.505956649780273 23.70271873474121 -2.865339517593384
-22.419471740722656 23.14084815979004 -2.825801372528076
-22.505956649780273 22.76719093322754 -2.8089613914489746
-15.352890014648438 15.22167682647705 -1.8978475332260132
-15.448387145996094 15.0111722946167 -1.8917632102966309
-22.419471740722656 21.350610733032227 -2.720243215560913
-22.484521865844727 20.9852294921875 -2.70365047454834
-22.678613662719727 20.743398666381836 -2.7030441761016846
-22.812519073486328 20.4481201171875 -2.695633888244629
-22.776884078979492 20.006567001342773 -2.6687874794006348
-15.757625579833984 13.562613487243652 -1.831142783164978
-15.615809440612793 13.169356346130371 -1.8000564575195312
-15.191229820251465 12.551901817321777 -1.737323522567749
-15.46888542175293 12.521568298339844 -1.7554571628570557
-15.75200080871582 12.490504264831543 -1.7741247415542603
-16.040800094604492 12.458687782287598 -1.7933486700057983
-15.232528686523438 11.587077140808105 -1.69072687625885
-15.51103401184082 11.554414749145508 -1.7095260620117188
-15.795389175415039 11.520928382873535 -1.728893756866455
-16.085798263549805 11.486592292785645 -1.7488536834716797
-16.38254737854004 11.451373100280762 -1.7694238424301147
-16.68592643737793 11.415225982666016 -1.7906347513198853
-16.996170043945312 11.378116607666016 -1.8125115633010864
-25.78728485107422 16.89007568359375 -2.7332143783569336
-15.911492347717285 10.194356918334961 -1.676413893699646
-16.03609275817871 10.04804801940918 -1.6797094345092773
-27.568328857421875 16.89007568359375 -2.8712661266326904
-28.20148468017578 16.89007568359375 -2.9209513664245605
-28.75301742553711 16.829607009887695 -2.9620137214660645
-28.80611228942871 16.473783493041992 -2.9518861770629883
-17.01323127746582 9.503707885742188 -1.7344902753829956
-16.412742614746094 8.952775001525879 -1.6649285554885864
-49.85939407348633 26.549699783325195 -5.033239841461182
-49.987674713134766 25.975772857666016 -5.022390842437744
-17.507976531982422 8.875308990478516 -1.750998854637146
-16.612821578979492 8.21245288848877 -1.6540617942810059
-17.0775089263916 8.22936725616455 -1.6929638385772705
-17.217411041259766 8.084318161010742 -1.6996530294418335
-17.358455657958984 7.938351154327393 -1.70658540725708
-17.50069236755371 7.7914276123046875 -1.713761806488037
-17.64417839050293 7.64349365234375 -1.7211904525756836
-17.788944244384766 7.494518756866455 -1.7288695573806763
-17.920242309570312 7.338380336761475 -1.7353805303573608
-17.95874786376953 7.143976211547852 -1.733071208000183
-18.03473472595215 6.9648308753967285 -1.734572410583496
-18.065515518188477 6.768610000610352 -1.7319118976593018
-18.53387451171875 6.732179641723633 -1.7712746858596802
-18.687450408935547 6.575860977172852 -1.78058922290802
-56.16971206665039 19.13232421875 -5.336550235748291
-57.72840881347656 19.0170841217041 -5.469445705413818
-38.617340087890625 12.292068481445312 -3.6490468978881836
-37.80740737915039 11.616551399230957 -3.5634267330169678
-38.5871467590332 11.432439804077148 -3.6280617713928223
-22.148160934448242 6.320211887359619 -2.0775914192199707
-22.257213592529297 6.1097917556762695 -2.083204507827759
-22.304059982299805 5.8819403648376465 -2.083204507827759
-22.34865951538086 5.653761386871338 -2.083204507827759
-22.390817642211914 5.425260543823242 -2.083204507827759
-22.091150283813477 5.117843151092529 -2.05167555809021
-90.66431427001953 20.04494285583496 -8.40622615814209
-39.23166275024414 8.260501861572266 -3.6318087577819824
-40.33737564086914 8.070222854614258 -3.728742837905884
-199.26559448242188 37.785179138183594 -18.394994735717773
-197.96734619140625 35.47871017456055 -18.252384185791016
-164.5189666748047 27.778337478637695 -15.151262283325195
-162.9844207763672 25.835025787353516 -14.994424819946289
-164.24758911132812 24.34317970275879 -15.096606254577637
-163.62892150878906 22.570940017700195 -15.027328491210938
-39.55540466308594 5.051146984100342 -3.6300528049468994
-23.118513107299805 2.7160418033599854 -2.1203081607818604
-22.946569442749023 2.461979389190674 -2.103456735610962
-22.946569442749023 2.2286102771759033 -2.102586030960083
-22.946569442749023 1.9957048892974854 -2.101933479309082
-22.62165641784668 1.7382441759109497 -2.07173752784729
-22.63428497314453 1.5102266073226929 -2.0726726055145264
-22.65168571472168 1.2825312614440918 -2.0742528438568115
-22.669586181640625 1.0547627210617065 -2.0760936737060547
-22.72621726989746 0.3704562187194824 -2.0831494331359863
-22.74610137939453 0.1417941451072693 -2.08601713180542
-22.687965393066406 0.8268673419952393 -2.078186511993408
-22.706832885742188 0.598781406879425 -2.0805392265319824
-22.733795166015625 -0.31594017148017883 -2.087610960006714
-22.747848510742188 -0.08716090023517609 -2.0874359607696533
-22.72024154663086 -0.5445094704627991 -2.0880422592163086
-22.69458770751953 -1.0013012886047363 -2.0896735191345215
-22.707164764404297 -0.7729615569114685 -2.088728904724121
-22.68248748779297 -1.2296411991119385 -2.0908713340759277
-22.660192489624023 -1.6864967346191406 -2.094076156616211
-22.670856475830078 -1.458000659942627 -2.09232497215271
-22.946569442749023 -1.9402563571929932 -2.1235289573669434
-22.946569442749023 -2.406359910964966 -2.13016676902771
-22.946569442749023 -2.173088312149048 -2.126739978790283
-22.946569442749023 -3.1093530654907227 -2.141791582107544
-22.946569442749023 -3.3448901176452637 -2.1461191177368164
-22.946569442749023 -3.581130266189575 -2.1506712436676025
-22.946569442749023 -3.818122386932373 -2.1554601192474365
-22.946569442749023 -2.640124559402466 -2.133820056915283
-22.946569442749023 -4.055905342102051 -2.1604747772216797
-22.946569442749023 -4.2945332527160645 -2.165727138519287
-22.946569442749023 -2.8744359016418457 -2.137695074081421
-23.099401473999023 -4.564269542694092 -2.1856791973114014
-23.099401473999023 -4.8063645362854 -2.191445827484131
-23.099401473999023 -5.293654441833496 -2.2037129402160645
-23.099401473999023 -5.049489498138428 -2.1974539756774902
-23.099401473999023 -5.538971900939941 -2.2102205753326416
-23.022985458374023 -6.01326322555542 -2.2166430950164795
-23.099401473999023 -5.785475730895996 -2.2169814109802246
-23.099401473999023 -6.282277584075928 -2.231274366378784
-23.099411010742188 -6.784557819366455 -2.2466189861297607
-23.099401473999023 -6.532721996307373 -2.2388103008270264
-15.900532722473145 -5.196631908416748 -1.5637109279632568
-23.099411010742188 -7.037917137145996 -2.2546937465667725
-15.86115837097168 -5.361075401306152 -1.5659576654434204
-15.82185173034668 -5.525885105133057 -1.5683791637420654
-15.940016746520996 -5.032505989074707 -1.5616390705108643
-15.782632827758789 -5.691070556640625 -1.5709764957427979
-15.665318489074707 -6.189454078674316 -1.5798476934432983
-15.7434720993042 -5.856709957122803 -1.5737555027008057
-15.626314163208008 -6.356631755828857 -1.5831633806228638
-15.704371452331543 -6.022828102111816 -1.5767122507095337
-15.587329864501953 -6.524429798126221 -1.586666226387024
-15.548375129699707 -6.69285774230957 -1.5903549194335938
-17.190845489501953 -7.605894565582275 -1.7670650482177734
-16.222768783569336 -7.571724891662598 -1.684712529182434
-16.82489776611328 -7.647437572479248 -1.7382168769836426
-15.657427787780762 -7.500757694244385 -1.634642243385315
-30.374311447143555 -15.31029987335205 -3.2060530185699463
-31.041622161865234 -15.256706237792969 -3.2583742141723633
-30.110111236572266 -15.559234619140625 -3.19623064994812
-16.494321823120117 -8.948628425598145 -1.771523118019104
-16.47149085998535 -9.15207576751709 -1.77980375289917
-17.832612991333008 -9.443559646606445 -1.9039520025253296
-17.34646987915039 -9.868091583251953 -1.8859612941741943
-17.1865291595459 -10.00745677947998 -1.8803975582122803
-17.34861946105957 -10.816285133361816 -1.9359453916549683
-17.02757453918457 -10.145806312561035 -1.875043272972107
-17.174175262451172 -10.949166297912598 -1.9296483993530273
-17.000944137573242 -11.081021308898926 -1.9235765933990479
-16.869556427001953 -10.283199310302734 -1.8698967695236206
-17.864673614501953 -11.901959419250488 -2.0357606410980225
-17.74588394165039 -12.082545280456543 -2.036979913711548
-40.86390686035156 -29.04401969909668 -4.761389255523682
-17.626920700073242 -12.263092041015625 -2.038383722305298
-40.885711669921875 -30.959672927856445 -4.87762975692749
-40.86390686035156 -29.667760848999023 -4.798245429992676
-40.885711669921875 -31.61233901977539 -4.917652130126953
-10.375417709350586 -8.190375328063965 -1.2583718299865723
-40.88571548461914 -30.316852569580078 -4.838696479797363
-40.86390686035156 -32.9312629699707 -4.998390197753906
-40.810585021972656 -33.571617126464844 -5.035229206085205
-51.49946212768555 -44.13288497924805 -6.468207836151123
-50.782752990722656 -44.413265228271484 -6.436881065368652
-51.5092658996582 -43.24947738647461 -6.41155481338501
-27.139163970947266 -24.717182159423828 -3.5054256916046143
-50.744178771972656 -45.28936767578125 -6.492305755615234
-26.596235275268555 -24.717172622680664 -3.4687588214874268
-25.54486846923828 -24.717172622680664 -3.3987503051757812
-26.06499481201172 -24.717172622680664 -3.433215618133545
-25.14185905456543 -24.82223129272461 -3.3796255588531494
-24.371538162231445 -25.050716400146484 -3.3459689617156982
-24.86737823486328 -25.050716400146484 -3.3778603076934814
-22.94023895263672 -25.05070686340332 -3.2557992935180664
-23.885326385498047 -25.050716400146484 -3.3150129318237305
-22.4807071685791 -25.05070686340332 -3.2274739742279053
-22.050092697143555 -25.07427215576172 -3.202967643737793
-23.408353805541992 -25.050716400146484 -3.2849667072296143
-21.811702728271484 -25.312660217285156 -3.2064242362976074
-21.7582950592041 -26.849700927734375 -3.3200275897979736
-21.758031845092773 -25.77060890197754 -3.2377395629882812
-21.758275985717773 -27.40937042236328 -3.3631863594055176
-21.7581787109375 -26.303627014160156 -3.2782270908355713
-21.758031845092773 -27.983139038085938 -3.407747507095337
-21.757787704467773 -28.571928024291992 -3.453812599182129
-24.66725730895996 -34.50723648071289 -4.083510398864746
-21.687347412109375 -29.0823974609375 -3.4901509284973145
-24.723615646362305 -35.33281326293945 -4.152913570404053
-24.613067626953125 -33.7087516784668 -4.01678466796875
-24.78226661682129 -36.186946868896484 -4.225142478942871
-24.943254470825195 -37.2204704284668 -4.317672252655029
-25.552091598510742 -40.738037109375 -4.638370513916016
-24.53779411315918 -37.42487335205078 -4.313866138458252
-24.912668228149414 -40.621681213378906 -4.597718238830566
-24.430988311767578 -38.093048095703125 -4.363673210144043
-22.825069427490234 -38.07272720336914 -4.284261703491211
-21.730724334716797 -37.089134216308594 -4.149960041046143
-21.37963104248047 -37.34708023071289 -4.155712604522705
-20.337491989135742 -37.24689483642578 -4.100437641143799
-20.329689025878906 -36.35730743408203 -4.023719787597656
-20.141115188598633 -37.7869758605957 -4.1384735107421875
-19.38564682006836 -38.20378875732422 -4.142703533172607
-19.36862564086914 -37.23623275756836 -4.057677268981934
-18.573869705200195 -37.53601837158203 -4.050841331481934
-18.040695190429688 -38.38441467285156 -4.104377746582031
-18.451671600341797 -38.253360748291016 -4.1090168952941895
-17.129240036010742 -39.502647399902344 -4.169618129730225
-16.868497848510742 -36.84984588623047 -3.9228596687316895
-17.70210075378418 -41.97685623168945 -4.412725448608398
-17.204221725463867 -41.97177505493164 -4.394711494445801
-16.861515045166016 -37.836692810058594 -4.0105814933776855
-18.415254592895508 -50.64830017089844 -5.225503921508789
-16.710500717163086 -41.966697692871094 -4.377259254455566
-19.221845626831055 -49.72474670410156 -5.167077541351318
-18.587940216064453 -49.56333923339844 -5.13162088394165
-17.650800704956055 -50.11148452758789 -5.15249490737915
-16.958126068115234 -49.73788833618164 -5.097213268280029
-17.603702545166016 -53.385311126708984 -5.453536033630371
-17.114404678344727 -57.7072639465332 -5.842475414276123
-17.258203506469727 -54.16562271118164 -5.516163349151611
-30.237689971923828 -105.856201171875 -10.68751049041748
-17.54110336303711 -57.03278350830078 -5.790838718414307
-28.575883865356445 -103.9927978515625 -10.471378326416016
-27.727436065673828 -105.03362274169922 -10.54905891418457
-24.056997299194336 -103.73160552978516 -10.34469223022461
-26.30625343322754 -103.87776184082031 -10.407279014587402
-25.334613800048828 -104.44971466064453 -10.439887046813965
-22.962631225585938 -103.74918365478516 -10.324111938476562
-21.269662857055664 -106.19379425048828 -10.525003433227539
-22.495014190673828 -106.71900939941406 -10.597790718078613
-19.8612060546875 -104.62187957763672 -10.349933624267578
-19.406232833862305 -108.15863800048828 -10.681000709533691
-23.396991729736328 -138.4045867919922 -13.64517593383789
-22.512861251831055 -141.85165405273438 -13.963187217712402
-19.389179229736328 -140.37777709960938 -13.779027938842773
-15.977879524230957 -238.9802703857422 -23.297393798828125
-13.562040328979492 -238.9802703857422 -23.283565521240234
-11.148857116699219 -238.9802703857422 -23.27195930480957
-8.73793888092041 -238.9802703857422 -23.262643814086914
-2.332987070083618 -88.09524536132812 -8.572689056396484
-1.4410732984542847 -87.82991027832031 -8.545065879821777
-0.5558976531028748 -87.73951721191406 -8.535292625427246
0.8926260471343994 -238.98028564453125 -23.24756622314453
3.299471378326416 -238.98028564453125 -23.24932861328125
-20.528749465942383 -138.33566284179688 -13.597155570983887
5.706971168518066 -238.98028564453125 -23.253305435180664
12.196535110473633 -276.90887451171875 -26.960905075073242
8.115778923034668 -238.98028564453125 -23.259592056274414
14.856672286987305 -274.40887451171875 -26.729782104492188
6.254610538482666 -97.35299682617188 -9.488290786743164
7.23115348815918 -97.23799896240234 -9.48326301574707
8.194219589233398 -96.9728775024414 -9.464469909667969
4.367582321166992 -41.666748046875 -4.073899745941162
4.03493595123291 -42.62981414794922 -4.164144992828369
5.395082473754883 -39.82437515258789 -3.907032012939453
4.556019306182861 -39.612754821777344 -3.8770949840545654
5.070511817932129 -40.489715576171875 -3.967420816421509
6.770687580108643 -40.69572067260742 -4.009646892547607
7.16566801071167 -40.54347610473633 -4.001133441925049
5.538509368896484 -38.002410888671875 -3.733247995376587
5.973001480102539 -38.27836990356445 -3.7657265663146973
6.816184997558594 -36.42203140258789 -3.600592851638794
7.245228290557861 -36.6684455871582 -3.631563901901245
9.630638122558594 -42.02286148071289 -4.187160968780518
7.681878089904785 -36.91928482055664 -3.663438320159912
10.086478233337402 -42.06188201904297 -4.200377464294434
7.99869441986084 -36.59035873413086 -3.638139247894287
11.044368743896484 -44.093475341796875 -4.413496971130371
10.530989646911621 -40.31682205200195 -4.045276641845703
10.708148002624512 -36.453922271728516 -3.686680555343628
10.986028671264648 -40.390953063964844 -4.062979221343994
10.205949783325195 -36.08420944213867 -3.6393203735351562
11.19987678527832 -36.75504684448242 -3.727710247039795
12.15211296081543 -37.1776237487793 -3.793250322341919
11.484925270080566 -36.3727912902832 -3.6998226642608643
12.175325393676758 -36.01647186279297 -3.686399221420288
12.957112312316895 -35.927310943603516 -3.7017695903778076
12.83863639831543 -36.75435256958008 -3.774230480194092
13.446351051330566 -36.13933181762695 -3.7366065979003906
14.806106567382812 -37.46730041503906 -3.902284860610962
14.246370315551758 -37.14073944091797 -3.8539693355560303
15.11963176727295 -37.16140365600586 -3.8852217197418213
15.430587768554688 -36.85800552368164 -3.8686678409576416
16.274513244628906 -34.861900329589844 -3.7213685512542725
16.721221923828125 -34.89762496948242 -3.7420082092285156
15.644963264465332 -36.338436126708984 -3.829578399658203
17.173194885253906 -34.93377685546875 -3.76326322555542
16.27423095703125 -36.77590560913086 -3.8918216228485107
17.551103591918945 -34.81259536743164 -3.7680561542510986
16.17658233642578 -35.58262252807617 -3.781665325164795
21.52867317199707 -41.65330505371094 -4.530490398406982
22.60300064086914 -41.65330505371094 -4.576528072357178
22.062952041625977 -41.65330505371094 -4.553164482116699
23.14891815185547 -41.65330505371094 -4.600580215454102
24.259504318237305 -41.65330505371094 -4.650869369506836
23.70103645324707 -41.65330505371094 -4.625362873077393
24.824542999267578 -41.65329360961914 -4.677125930786133
25.97533416748047 -41.65329360961914 -4.731983184814453
25.39643669128418 -41.65329360961914 -4.704161643981934
26.285490036010742 -41.22023010253906 -4.711087226867676
20.90693473815918 -31.373708724975586 -3.6307661533355713
20.942365646362305 -30.751266479492188 -3.5817744731903076
20.942363739013672 -30.095428466796875 -3.5285749435424805
22.83810806274414 -35.03105163574219 -4.02852725982666
20.87677764892578 -29.365985870361328 -3.466341257095337
20.920507431030273 -27.62131690979004 -3.3299763202667236
20.87677764892578 -28.748563766479492 -3.416914939880371
20.920507431030273 -28.20701026916504 -3.376222848892212
20.920507431030273 -27.051015853881836 -3.28525972366333
20.920507431030273 -26.495389938354492 -3.242013692855835
9.833837509155273 -11.472512245178223 -1.4489108324050903
20.907480239868164 -25.93758773803711 -3.1981709003448486
9.834901809692383 -10.796008110046387 -1.3987088203430176
20.762392044067383 -25.233320236206055 -3.1357674598693848
9.989453315734863 -10.746291160583496 -1.4046605825424194
20.623807907104492 -24.556659698486328 -3.0761642456054688
10.302988052368164 -10.645421981811523 -1.4171510934829712
9.529980659484863 -10.894083976745605 -1.387367844581604
10.462089538574219 -10.594240188598633 -1.4236947298049927
9.681767463684082 -10.845266342163086 -1.3929461240768433
19.611738204956055 -19.46353530883789 -2.640875816345215
19.52039909362793 -18.986591339111328 -2.601593255996704
10.145468711853027 -10.696096420288086 -1.41080904006958
20.559364318847656 -19.598201751708984 -2.7124600410461426
20.978271484375 -19.598201751708984 -2.7403624057769775
21.406347274780273 -19.598201751708984 -2.769151210784912
-23.49393653869629 46.50969696044922 -4.0822834968566895
-24.084318161010742 46.50969696044922 -4.1047139167785645
-24.680871963500977 46.50969696044922 -4.1278228759765625
-25.283830642700195 46.50969696044922 -4.151634216308594
-25.893449783325195 46.50969696044922 -4.176146984100342
-26.50991439819336 46.50969696044922 -4.201388359069824
-27.13349723815918 46.50969696044922 -4.22737979888916
-27.764434814453125 46.50969696044922 -4.254134178161621
-28.40300941467285 46.50969696044922 -4.281667232513428
-29.049474716186523 46.50969696044922 -4.3100056648254395
-29.68285369873047 46.47640609741211 -4.336066722869873
-123.23931121826172 188.75013732910156 -17.73145294189453
-10.38851547241211 13.987990379333496 -1.373948335647583
-25.237306594848633 33.27690505981445 -3.294774293899536
-25.15386962890625 32.48283004760742 -3.242476463317871
-15.115166664123535 19.11868667602539 -1.9243892431259155
-15.26728630065918 18.916728973388672 -1.9202929735183716
-15.418632507324219 18.715770721435547 -1.9164172410964966
-15.56923770904541 18.515771865844727 -1.912764549255371
-15.060918807983398 17.54970359802246 -1.8293832540512085
-15.898964881896973 18.153398513793945 -1.9097933769226074
-22.83602523803711 25.550765991210938 -2.713346242904663
-22.790761947631836 24.989458084106445 -2.679246664047241
-22.74711799621582 24.443056106567383 -2.646357297897339
-22.70499038696289 23.91077995300293 -2.614614486694336
-22.664335250854492 23.392065048217773 -2.583984613418579
-22.62506866455078 22.886199951171875 -2.554401397705078
-15.352822303771973 15.220582962036133 -1.716843843460083
-15.448318481445312 15.01008415222168 -1.7114224433898926
-22.515106201171875 21.44023323059082 -2.471550226211548
-22.480897903442383 20.980409622192383 -2.4457695484161377
-22.447811126708984 20.530853271484375 -2.4208426475524902
-22.41581916809082 20.091121673583984 -2.3967361450195312
-22.384872436523438 19.66081428527832 -2.3734190464019775
-15.517107963562012 13.354634284973145 -1.6317919492721558
-22.325965881347656 18.826894760131836 -2.329035997390747
-15.31932544708252 12.65682315826416 -1.5856053829193115
-15.60063362121582 12.627281188964844 -1.602372646331787
-15.887537956237793 12.59703254699707 -1.619634985923767
-15.093876838684082 11.722321510314941 -1.527478575706482
-15.370662689208984 11.691241264343262 -1.544371247291565
-15.653182029724121 11.659395217895508 -1.5617767572402954
-15.941726684570312 11.626744270324707 -1.5797119140625
-16.236492156982422 11.593262672424316 -1.5981991291046143
-16.537752151489258 11.558921813964844 -1.6172555685043335
-16.84583854675293 11.52366828918457 -1.6369118690490723
-17.160964965820312 11.487481117248535 -1.657185673713684
-25.789472579956055 16.89007568359375 -2.4753336906433105
-15.908924102783203 10.19182300567627 -1.517952561378479
-16.039079666137695 10.04902458190918 -1.5215493440628052
-27.570791244506836 16.89007568359375 -2.60080885887146
-28.204042434692383 16.89007568359375 -2.6459686756134033
-28.85897445678711 16.89007568359375 -2.6929574012756348
-29.13532066345215 16.660486221313477 -2.704618453979492
-17.435808181762695 9.738829612731934 -1.6103564500808716
-16.803436279296875 9.164997100830078 -1.544303297996521
-49.85939407348633 26.547077178955078 -4.560293197631836
-16.508962631225586 8.577906608581543 -1.502923846244812
-16.64393424987793 8.436431884765625 -1.5083452463150024
-16.779890060424805 8.294166564941406 -1.5139727592468262
-16.916873931884766 8.15108585357666 -1.5198092460632324
-17.05491065979004 8.007140159606934 -1.5258550643920898
-17.194061279296875 7.862281799316406 -1.532118797302246
-17.334354400634766 7.716485977172852 -1.5385992527008057
-17.475858688354492 7.569680213928223 -1.5453011989593506
-17.618581771850586 7.421853065490723 -1.552234172821045
-17.762605667114258 7.272932052612305 -1.5593960285186768
-17.907976150512695 7.122873306274414 -1.5667974948883057
-18.054716110229492 6.97164249420166 -1.5744329690933228
-18.202898025512695 6.81917667388916 -1.5823196172714233
-18.35258674621582 6.665421485900879 -1.5904531478881836
-18.503826141357422 6.510328769683838 -1.598846435546875
-18.656667709350586 6.35384464263916 -1.6074954271316528
-57.73699188232422 19.0170841217041 -4.96123743057251
-38.46736145019531 12.24244499206543 -3.296849012374878
-22.091150283813477 6.786554336547852 -1.8886198997497559
-22.292633056640625 6.6036834716796875 -1.901322841644287
-22.546598434448242 6.43281888961792 -1.9186358451843262
-22.606481552124023 6.2045769691467285 -1.9195961952209473
-22.606481552124023 5.960597515106201 -1.9156752824783325
-22.606481552124023 5.717892169952393 -1.9119722843170166
-22.606481552124023 5.4764275550842285 -1.9084930419921875
-22.606481552124023 5.236144065856934 -1.905220627784729
-22.091150283813477 4.883067607879639 -1.8587979078292847
-23.393747329711914 4.924596309661865 -1.9654467105865479
-39.26552963256836 7.853914737701416 -3.2943336963653564
-199.26559448242188 37.77566909790039 -16.6966495513916
-198.0194854736328 35.47870635986328 -16.572612762451172
-162.88729858398438 27.495168685913086 -13.617680549621582
-161.43588256835938 25.58193016052246 -13.483229637145996
-162.78916931152344 24.11939239501953 -13.58443546295166
-161.26490783691406 22.23729133605957 -13.446951866149902
-171.83314514160156 21.934688568115234 -14.318751335144043
-23.117292404174805 2.7148211002349854 -1.9252773523330688
-22.946569442749023 2.4609100818634033 -1.9101901054382324
-22.946569442749023 2.2275359630584717 -1.9095189571380615
-22.239187240600586 1.9331415891647339 -1.8501921892166138
-22.23863983154297 1.7077707052230835 -1.8498764038085938
-22.238473892211914 1.4827755689620972 -1.8497766256332397
-22.23868751525879 1.2581075429916382 -1.8499014377593994
-22.24789810180664 1.0341036319732666 -1.8509591817855835
-22.26576805114746 0.8104464411735535 -1.852925419807434
-22.284069061279297 0.5866037011146545 -1.855115294456482
-22.302820205688477 0.3625265657901764 -1.8575371503829956
-22.322017669677734 0.13811254501342773 -1.8601831197738647
-22.32380485534668 -0.08657003194093704 -1.8615679740905762
-22.310232162475586 -0.31108659505844116 -1.8618524074554443
-22.297096252441406 -0.5354078412055969 -1.8623675107955933
-22.284381866455078 -0.7596021890640259 -1.8631030321121216
-22.272106170654297 -0.9837036728858948 -1.8640655279159546
-22.265974044799805 -1.2080981731414795 -1.8657256364822388
-22.27075958251953 -1.4333032369613647 -1.868493914604187
-22.275924682617188 -1.6589330434799194 -1.8714861869812012
-22.28148078918457 -1.8850561380386353 -1.8747026920318604
-22.946569442749023 -2.1741528511047363 -1.9337007999420166
-22.946569442749023 -2.4074292182922363 -1.9369319677352905
-22.946569442749023 -2.6411986351013184 -1.9403704404830933
-22.946569442749023 -2.875505208969116 -1.9440075159072876
-22.946569442749023 -3.110427141189575 -1.947851538658142
-22.946569442749023 -3.345964193344116 -1.9519011974334717
-22.946569442749023 -3.582204580307007 -1.9561599493026733
-22.946569442749023 -3.81921124458313 -1.9606255292892456
-22.946569442749023 -4.0569844245910645 -1.9653050899505615
-22.946569442749023 -4.2956223487854 -1.970201015472412
-23.099401473999023 -4.56536340713501 -1.988466739654541
-23.099401473999023 -4.807453155517578 -1.9938311576843262
-23.099401473999023 -5.0505828857421875 -1.999416708946228
-23.099401473999023 -5.294753074645996 -2.00522518157959
-23.099401473999023 -5.540080547332764 -2.0112626552581787
-23.099401473999023 -5.786574363708496 -2.0175273418426514
-23.022985458374023 -6.01436185836792 -2.01731276512146
-23.099401473999023 -6.283390998840332 -2.030768394470215
-23.099401473999023 -6.533825397491455 -2.037748098373413
-23.099401473999023 -6.785680770874023 -2.0449626445770264
-23.099411010742188 -7.0390305519104 -2.052433729171753
-23.099411010742188 -7.293932914733887 -2.060150146484375
-23.022994995117188 -7.525514125823975 -2.061251163482666
-15.720660209655762 -5.314361572265625 -1.4130902290344238
-15.681577682495117 -5.477662086486816 -1.4153411388397217
-15.64255428314209 -5.641334056854248 -1.4177532196044922
-15.525737762451172 -6.135074138641357 -1.4259381294250488
-15.603569984436035 -5.805435657501221 -1.4203215837478638
-15.486861228942871 -6.300679683685303 -1.4289898872375488
-15.564634323120117 -5.970005989074707 -1.423051118850708
-15.447994232177734 -6.466880798339844 -1.43220853805542
-17.731138229370117 -7.633326053619385 -1.651915192604065
-32.798614501953125 -15.309919357299805 -3.1028993129730225
-17.0726318359375 -7.554459095001221 -1.598531723022461
-16.456401824951172 -7.480777263641357 -1.548730492591858
-30.708627700805664 -14.71267318725586 -2.920762300491333
-30.376693725585938 -15.31307315826416 -2.9213454723358154
-31.044260025024414 -15.259596824645996 -2.96889066696167
-30.39214324951172 -15.706548690795898 -2.9395992755889893
-16.484468460083008 -8.9441556930542 -1.6133663654327393
-17.932193756103516 -9.497232437133789 -1.7446099519729614
-16.466508865356445 -9.150171279907227 -1.6214632987976074
-17.281118392944336 -10.063462257385254 -1.7232329845428467
-17.1209716796875 -10.202378273010254 -1.7183785438537598
-17.442272186279297 -9.923521041870117 -1.7282787561416626
-16.961782455444336 -10.340337753295898 -1.7137130498886108
-17.332046508789062 -10.806900024414062 -1.7630032300949097
-17.244556427001953 -10.994986534118652 -1.7662361860275269
-17.984127044677734 -11.982544898986816 -1.868345856666565
-17.070356369018555 -11.127212524414062 -1.760736346244812
-40.86390686035156 -27.82509422302246 -4.27647590637207
-40.86390686035156 -29.046344757080078 -4.341402053833008
-40.86390686035156 -29.670095443725586 -4.375208854675293
-40.88571548461914 -30.31920623779297 -4.412289142608643
-40.885711669921875 -30.962045669555664 -4.447999000549316
-40.885711669921875 -31.614721298217773 -4.484696388244629
-40.86390686035156 -28.431432723999023 -4.308498859405518
-10.375173568725586 -8.1907958984375 -1.1476070880889893
-40.86390686035156 -32.933685302734375 -4.558727741241455
-51.16768264770508 -43.8516731262207 -5.862009048461914
-53.03201675415039 -46.3836555480957 -6.131760120391846
-40.80763626098633 -33.571617126464844 -4.592202186584473
-55.58099365234375 -49.60967254638672 -6.487020015716553
-51.42536926269531 -43.18212127685547 -5.838560581207275
-25.88786506652832 -25.050716400146484 -3.142599105834961
-27.503490447998047 -25.050716400146484 -3.240832805633545
-25.371625900268555 -25.050716400146484 -3.1118123531341553
-26.95331573486328 -25.050716400146484 -3.2070717811584473
-24.865766525268555 -25.050716400146484 -3.0819430351257324
-26.414936065673828 -25.050716400146484 -3.1743404865264893
-24.369964599609375 -25.050716400146484 -3.0529634952545166
-22.938812255859375 -25.05070686340332 -2.971031427383423
-23.88380241394043 -25.050716400146484 -3.02483868598938
-22.479320526123047 -25.05070686340332 -2.945300579071045
-23.406888961791992 -25.05070686340332 -2.9975392818450928
-22.04936981201172 -25.07498550415039 -2.9231274127960205
-21.810991287231445 -25.313373565673828 -2.9263906478881836
-21.758031845092773 -25.772172927856445 -2.9551615715026855
-21.72406768798828 -26.809057235717773 -3.025722026824951
-21.72406768798828 -26.263959884643555 -2.9875407218933105
-21.68465232849121 -27.318227767944336 -3.0596296787261963
-21.758216857910156 -28.57414436340332 -3.1529860496520996
-21.72406768798828 -27.941068649291992 -3.1059091091156006
-24.338253021240234 -34.04889678955078 -3.6783974170684814
-24.38844871520996 -34.85577392578125 -3.7402126789093018
-23.831144332885742 -31.958995819091797 -3.50116229057312
-24.44064712524414 -35.69007873535156 -3.8044955730438232
-24.289981842041016 -33.26815414428711 -3.6189589500427246
-24.49500274658203 -36.5535774230957 -3.8714241981506348
-25.538097381591797 -40.71794128417969 -4.233147621154785
-25.361730575561523 -41.35612869262695 -4.274150371551514
-24.564279556274414 -37.467315673828125 -3.9431660175323486
-22.167062759399414 -36.97711944580078 -3.799551010131836
-24.403926849365234 -38.052921295166016 -3.9800949096679688
-21.83795166015625 -37.274112701416016 -3.8084938526153564
-20.38762855529785 -37.34065628051758 -3.754103660583496
-21.491973876953125 -37.54530334472656 -3.8150923252105713
-20.37887954711914 -36.44718933105469 -3.683605670928955
-19.47431755065918 -38.380489349365234 -3.8010640144348145
-19.689104080200195 -36.94084167480469 -3.694878101348877
-18.57809829711914 -37.54645538330078 -3.7007839679718018
-19.59288215637207 -37.669288635253906 -3.7489101886749268
-18.172414779663086 -37.67631912231445 -3.6963722705841064
-18.260080337524414 -38.853145599365234 -3.7946059703826904
-17.928762435913086 -41.348514556884766 -3.986640214920044
-17.71710205078125 -42.01449966430664 -4.034425735473633
-19.31362533569336 -42.193397521972656 -4.1027021408081055
-17.21874237060547 -42.00925827026367 -4.01802921295166
-18.410890579223633 -41.315486907958984 -4.0001349449157715
-16.724552154541016 -42.00401306152344 -4.002139091491699
-18.075889587402344 -49.717323303222656 -4.685971736907959
-19.200098037719727 -49.6708869934082 -4.715041637420654
-17.631572723388672 -50.05928421020508 -4.702197074890137
-18.64381980895996 -49.71469497680664 -4.7021803855896
-18.2376766204834 -53.493289947509766 -5.008275508880615
-17.633438110351562 -53.47803497314453 -4.99094295501709
-17.120849609375 -57.73171615600586 -5.340136528015137
-17.686983108520508 -55.51398468017578 -5.165046215057373
-31.17699432373047 -109.14959716796875 -10.068402290344238
-17.530927658081055 -57.00235366821289 -5.287800312042236
-28.995756149291992 -105.52559661865234 -9.708283424377441
-27.73299217224121 -105.05950164794922 -9.640764236450195
-24.10539436340332 -103.94500732421875 -9.471461296081543
-22.91191864013672 -103.52471160888672 -9.412925720214844
-26.131410598754883 -103.19205474853516 -9.446186065673828
-22.164369583129883 -105.15506744384766 -9.541586875915527
-25.325414657592773 -104.41653442382812 -9.535841941833496
-21.238597869873047 -106.04344177246094 -9.603459358215332
-19.06597900390625 -112.78949737548828 -10.160879135131836
-19.92970085144043 -104.98738861083984 -9.490256309509277
-20.495790481567383 -138.1194305419922 -12.405336380004883
-19.391536712646484 -108.08151245117188 -9.75285530090332
-19.41202163696289 -140.549072265625 -12.606403350830078
-15.977253913879395 -238.9802703857422 -21.289472579956055
-11.148466110229492 -238.9802703857422 -21.26639175415039
-13.561542510986328 -238.9802703857422 -21.276945114135742
-8.737655639648438 -238.9802703857422 -21.257911682128906
-2.3214638233184814 -87.66246795654297 -7.795433044433594
-1.4391006231307983 -87.71139526367188 -7.798140525817871
3.2991881370544434 -238.98028564453125 -21.245744705200195
5.70659065246582 -238.98028564453125 -21.249370574951172
8.11527156829834 -238.98028564453125 -21.255016326904297
-0.5580949187278748 -88.0827407836914 -7.830262184143066
12.195822715759277 -276.90887451171875 -24.637298583984375
0.8924599885940552 -238.98028564453125 -21.244150161743164
14.85583209991455 -274.40887451171875 -24.426015853881836
7.209932804107666 -96.95777893066406 -8.640873908996582
6.25483512878418 -97.36192321777344 -8.671270370483398
4.366420269012451 -41.65776443481445 -3.7218873500823975
8.197705268859863 -97.01920318603516 -8.652762413024902
4.805014133453369 -41.77979278564453 -3.7366409301757812
4.147914409637451 -43.82571029663086 -3.911925792694092
5.173656463623047 -41.31545639038086 -3.6992733478546143
5.5549163818359375 -41.00629806518555 -3.676085948944092
6.77101993560791 -40.69979476928711 -3.6641578674316406
5.900550842285156 -40.48862075805664 -3.6344783306121826
6.3743791580200195 -40.85267639160156 -3.672360420227051
7.287445545196533 -41.234588623046875 -3.718306541442871
7.526311874389648 -38.09293746948242 -3.4471278190612793
7.653998374938965 -40.90088653564453 -3.694528341293335
7.670521259307861 -36.86654281616211 -3.3425252437591553
9.692181587219238 -42.29352569580078 -3.8503921031951904
8.114309310913086 -37.12111282348633 -3.372373342514038
10.267269134521484 -42.81797790527344 -3.9067482948303223
10.715930938720703 -42.78435516357422 -3.912712574005127
11.51563835144043 -44.08867263793945 -4.0417327880859375
9.783284187316895 -35.97075271606445 -3.3058407306671143
10.824329376220703 -36.851295471191406 -3.4048898220062256
10.296048164367676 -36.40458679199219 -3.3544795513153076
11.191956520080566 -36.73092269897461 -3.4033613204956055
11.476868629455566 -36.3491096496582 -3.3778669834136963
12.121185302734375 -37.084869384765625 -3.456709861755371
13.277688980102539 -36.81807327270508 -3.4654409885406494
12.131966590881348 -35.89000701904297 -3.3558614253997803
13.77741527557373 -37.03102111816406 -3.4975783824920654
14.071761131286621 -36.687408447265625 -3.4775259494781494
12.987435340881348 -37.18223190307617 -3.4879934787750244
15.643664360046387 -36.33732223510742 -3.4978060722351074
18.5524845123291 -46.95006561279297 -4.466709136962891
18.813312530517578 -42.515838623046875 -4.109504222869873
18.60717010498047 -45.73550796508789 -4.367708206176758
18.570411682128906 -44.36020278930664 -4.25295877456665
16.207998275756836 -35.65357971191406 -3.4608869552612305
16.275537490844727 -34.86593246459961 -3.399235486984253
17.551368713378906 -34.81498718261719 -3.4414632320404053
16.722286224365234 -34.90168762207031 -3.41800856590271
21.52752113342285 -41.65330505371094 -4.137418270111084
17.174287796020508 -34.93785858154297 -3.4373347759246826
22.061769485473633 -41.65330505371094 -4.158022880554199
22.60177993774414 -41.65330505371094 -4.179244518280029
24.25816535949707 -41.65330505371094 -4.2467780113220215
23.14765739440918 -41.65330505371094 -4.201094627380371
24.82317543029785 -41.65329360961914 -4.270637512207031
23.699758529663086 -41.65330505371094 -4.2236104011535645
25.395030975341797 -41.65329360961914 -4.295191764831543
20.920509338378906 -31.395875930786133 -3.3170626163482666
20.920509338378906 -30.720943450927734 -3.2666542530059814
20.920507431030273 -30.06576156616211 -3.218034267425537
20.803213119506836 -29.264188766479492 -3.1533236503601074
20.64264678955078 -28.427812576293945 -3.084263563156128
20.489871978759766 -27.628007888793945 -3.0185585021972656
21.967384338378906 -35.22822952270508 -3.654029130935669
20.34432601928711 -26.86214828491211 -2.9559600353240967
20.205577850341797 -26.12813377380371 -2.896285057067871
20.073123931884766 -25.423709869384766 -2.8393163681030273
21.74542236328125 -34.10258483886719 -3.5585641860961914
21.53588104248047 -33.03542709350586 -3.468440055847168
19.946611404418945 -24.747020721435547 -2.7849035263061523
19.82564353942871 -24.0963077545166 -2.7328763008117676
9.884833335876465 -11.532727241516113 -1.3291784524917603
19.70989227294922 -23.46990203857422 -2.6830904483795166
10.457587242126465 -11.48027515411377 -1.3571730852127075
19.492801666259766 -22.28435516357422 -2.5897200107574463
11.102470397949219 -11.94439697265625 -1.4245529174804688
10.295371055603027 -11.533331871032715 -1.3517282009124756
10.458086013793945 -11.026398658752441 -1.3269692659378052
20.118202209472656 -19.569374084472656 -2.446148633956909
19.022186279296875 -19.655712127685547 -2.38731050491333
18.93868064880371 -19.179180145263672 -2.3513970375061035
20.557958602905273 -19.598201751708984 -2.4743380546569824
19.03447151184082 -18.891902923583984 -2.3384780883789062
20.976835250854492 -19.598201751708984 -2.4996886253356934
21.40485382080078 -19.598201751708984 -2.5258326530456543
-23.495197296142578 46.50969696044922 -3.6468703746795654
-24.085588455200195 46.50969696044922 -3.6670620441436768
-24.682180404663086 46.50969696044922 -3.6878559589385986
-25.28519630432129 46.50969696044922 -3.709275722503662
